4.221129417419433594e-01,-2.008279323577880859e+00,-1.795408278703689575e-01
1.746708273887634277e+00,-8.317499160766601562e+00,1.652024269104003906e+00
4.257228076457977295e-01,-2.028973102569580078e+00,-1.086494624614715576e-01
1.246305346488952637e+00,-5.944990158081054688e+00,1.402344822883605957e+00
4.230733215808868408e-01,-2.019853591918945312e+00,-3.602176904678344727e-02
1.432096838951110840e+00,-6.843126296997070312e+00,1.873332381248474121e+00
4.079616665840148926e-01,-1.961351394653320312e+00,-5.367907285690307617e-01
4.223414957523345947e-01,-2.032262802124023438e+00,3.623119741678237915e-02
4.120260775089263916e-01,-1.984365582466125488e+00,-4.678982198238372803e-01
4.239086806774139404e-01,-2.041593551635742188e+00,1.092774868011474609e-01
4.091627597808837891e-01,-1.972304701805114746e+00,-3.915400803089141846e-01
1.269727587699890137e+00,-6.125896930694580078e+00,5.473380684852600098e-01
4.109964966773986816e-01,-1.984626531600952148e+00,-3.210035562515258789e-01
1.655908226966857910e+00,-8.003110885620117188e+00,1.003472208976745605e+00
4.138765037059783936e-01,-2.000291585922241211e+00,-2.508071362972259521e-01
4.142938256263732910e-01,-2.005838155746459961e+00,-1.791922003030776978e-01
1.672431826591491699e+00,-8.104352951049804688e+00,1.608519911766052246e+00
4.162178337574005127e-01,-2.018710136413574219e+00,-1.080214232206344604e-01
1.228157997131347656e+00,-5.956724643707275391e+00,1.404144406318664551e+00
4.171797037124633789e-01,-2.025162458419799805e+00,-3.609157726168632507e-02
4.018426239490509033e-01,-1.964586138725280762e+00,-5.373083949089050293e-01
4.155998528003692627e-01,-2.033652067184448242e+00,3.623119741678237915e-02
4.031042456626892090e-01,-1.974264860153198242e+00,-4.651987850666046143e-01
4.159373939037322998e-01,-2.037117242813110352e+00,1.089634671807289124e-01
4.049745798110961914e-01,-1.985192775726318359e+00,-3.938297927379608154e-01
1.246223688125610352e+00,-6.114456176757812500e+00,5.459435582160949707e-01
4.052012264728546143e-01,-1.989849925041198730e+00,-3.216292858123779297e-01
4.060536324977874756e-01,-1.995817303657531738e+00,-2.500759065151214600e-01
1.214701175689697266e+00,-5.975780963897705078e+00,9.658265113830566406e-01
4.084332287311553955e-01,-2.011106252670288086e+00,-1.795408278703689575e-01
1.207515597343444824e+00,-5.951075077056884766e+00,1.180344462394714355e+00
4.087275564670562744e-01,-2.016164541244506836e+00,-1.078120842576026917e-01
1.204913377761840820e+00,-5.943576335906982422e+00,1.400095343589782715e+00
4.108589291572570801e-01,-2.028494834899902344e+00,-3.612648323178291321e-02
1.333037257194519043e+00,-6.587387084960937500e+00,1.800862908363342285e+00
3.953255414962768555e-01,-1.965907931327819824e+00,-5.373083949089050293e-01
4.100352525711059570e-01,-2.040900468826293945e+00,3.633590787649154663e-02
3.957880139350891113e-01,-1.971769571304321289e+00,-4.642989933490753174e-01
4.080387353897094727e-01,-2.034640312194824219e+00,1.087541282176971436e-01
3.972312510013580322e-01,-1.980749964714050293e+00,-3.926849365234375000e-01
1.227506041526794434e+00,-6.126369476318359375e+00,5.466408133506774902e-01
3.974371552467346191e-01,-1.985372185707092285e+00,-3.206907212734222412e-01
1.200246214866638184e+00,-6.001191616058349609e+00,7.514464259147644043e-01
3.963618278503417969e-01,-1.983596205711364746e+00,-2.483697384595870972e-01
1.193833589553833008e+00,-5.979984760284423828e+00,9.658265113830566406e-01
4.017618298530578613e-01,-2.012449502944946289e+00,-1.795408278703689575e-01
1.169225978851318359e+01,-5.862052917480468750e+01,1.161912345886230469e+01
4.020396173000335693e-01,-2.017508745193481445e+00,-1.078120842576026917e-01
1.460412740707397461e+00,-7.335298538208007812e+00,1.726724386215209961e+00
4.037755727767944336e-01,-2.029916524887084961e+00,-3.612648323178291321e-02
3.873380720615386963e-01,-1.961590290069580078e+00,-5.357554554939270020e-01
4.025216400623321533e-01,-2.040357589721679688e+00,3.630100563168525696e-02
3.896566927433013916e-01,-1.976962924003601074e+00,-4.651987850666046143e-01
4.017057418823242188e-01,-2.039971351623535156e+00,1.089634671807289124e-01
3.895560503005981445e-01,-1.978271961212158203e+00,-3.919216990470886230e-01
1.198805928230285645e+00,-6.093473434448242188e+00,5.433288812637329102e-01
3.912666141986846924e-01,-1.990623712539672852e+00,-3.213164508342742920e-01
1.177110290527343750e+01,-5.994241333007812500e+01,7.500571250915527344e+00
3.901994526386260986e-01,-1.988863587379455566e+00,-2.488572150468826294e-01
1.698064804077148438e+00,-8.663107872009277344e+00,1.398211479187011719e+00
3.947347998619079590e-01,-2.013839721679687500e+00,-1.795408278703689575e-01
1.165470600128173828e+00,-5.951449871063232422e+00,1.178818106651306152e+00
3.965286314487457275e-01,-2.026740074157714844e+00,-1.082307696342468262e-01
1.179092645645141602e+00,-6.032169818878173828e+00,1.418991208076477051e+00
3.943876624107360840e-01,-2.019537687301635742e+00,-3.591705113649368286e-02
1.275918006896972656e+00,-6.539649963378906250e+00,1.785333871841430664e+00
3.779150247573852539e-01,-1.949654221534729004e+00,-5.321319699287414551e-01
3.953969478607177734e-01,-2.041750192642211914e+00,3.630100563168525696e-02
3.849746286869049072e-01,-1.989790678024291992e+00,-4.678982198238372803e-01
3.938243091106414795e-01,-2.037439346313476562e+00,1.087541282176971436e-01
3.826481401920318604e-01,-1.979619741439819336e+00,-3.919216990470886230e-01
1.171106100082397461e+00,-6.064364433288574219e+00,5.403655767440795898e-01
3.846898078918457031e-01,-1.993916988372802734e+00,-3.216292858123779297e-01
1.166323375701904297e+01,-6.050942230224609375e+01,7.566380500793457031e+00
3.825040459632873535e-01,-1.986314892768859863e+00,-2.483697384595870972e-01
1.669306039810180664e+00,-8.676741600036621094e+00,1.399462819099426270e+00
3.862228095531463623e-01,-2.009403228759765625e+00,-1.790179014205932617e-01
1.144689559936523438e+00,-5.955482006072998047e+00,1.178818106651306152e+00
3.909583985805511475e-01,-2.035957813262939453e+00,-1.086494624614715576e-01
1.145691776275634766e+01,-5.971944046020507812e+01,1.403874588012695312e+01
3.880885243415832520e-01,-2.024830102920532227e+00,-3.598686307668685913e-02
1.254536390304565430e+00,-6.551653385162353516e+00,1.787404298782348633e+00
3.714882433414459229e-01,-1.954822182655334473e+00,-5.331673026084899902e-01
3.864010274410247803e-01,-2.033295392990112305e+00,3.612648323178291321e-02
3.765723705291748047e-01,-1.983464121818542480e+00,-4.660985767841339111e-01
3.878267407417297363e-01,-2.044688463211059570e+00,1.090681478381156921e-01
3.757556080818176270e-01,-1.982937693595886230e+00,-3.923032879829406738e-01
1.149241685867309570e+00,-6.070573806762695312e+00,5.405399203300476074e-01
3.744423389434814453e-01,-1.979785919189453125e+00,-3.191263675689697266e-01
1.496650815010070801e+00,-7.913229942321777344e+00,9.888479113578796387e-01
3.770426511764526367e-01,-1.995440244674682617e+00,-2.493446916341781616e-01
1.571587324142456055e+00,-8.325353622436523438e+00,1.341894984245300293e+00
3.788370192050933838e-01,-2.008781194686889648e+00,-1.788435727357864380e-01
1.122126102447509766e+00,-5.955778598785400391e+00,1.178054809570312500e+00
3.827545940876007080e-01,-2.033451318740844727e+00,-1.084401085972785950e-01
1.145260930061340332e+00,-6.090247154235839844e+00,1.430688619613647461e+00
3.813879787921905518e-01,-2.028137683868408203e+00,-3.602176904678344727e-02
1.121832847595214844e+01,-5.971402740478515625e+01,1.628023719787597656e+01
3.660784661769866943e-01,-1.963703393936157227e+00,-5.352377891540527344e-01
3.796782195568084717e-01,-2.038629531860351562e+00,3.619629144668579102e-02
3.678744137287139893e-01,-1.977167606353759766e+00,-4.642989933490753174e-01
3.814176917076110840e-01,-2.049956798553466797e+00,1.092774868011474609e-01
3.691900670528411865e-01,-1.986167550086975098e+00,-3.926849365234375000e-01
1.127681136131286621e+00,-6.072589397430419922e+00,5.403655767440795898e-01
3.686101734638214111e-01,-1.986907362937927246e+00,-3.200649321079254150e-01
1.143324661254882812e+01,-6.168827819824218750e+01,7.703361988067626953e+00
3.704492747783660889e-01,-2.000712871551513672e+00,-2.498321831226348877e-01
1.138600349426269531e+01,-6.149322891235351562e+01,9.905118942260742188e+00
3.729099333286285400e-01,-2.015968799591064453e+00,-1.793665140867233276e-01
1.676433920860290527e+00,-9.071732521057128906e+00,1.793223142623901367e+00
3.731159567832946777e-01,-2.021026372909545898e+00,-1.077074110507965088e-01
1.283050775527954102e+00,-6.956595897674560547e+00,1.633144617080688477e+00
3.750314414501190186e-01,-2.033389568328857422e+00,-3.609157726168632507e-02
1.275278687477111816e+00,-6.921227455139160156e+00,1.885755658149719238e+00
3.595690131187438965e-01,-1.966869831085205078e+00,-5.357554554939270020e-01
3.739945590496063232e-01,-2.045778751373291016e+00,3.630100563168525696e-02
3.627162277698516846e-01,-1.986044764518737793e+00,-4.660985767841339111e-01
3.717502057552337646e-01,-2.037522077560424805e+00,1.085447818040847778e-01
3.629590868949890137e-01,-1.991307020187377930e+00,-3.934481441974639893e-01
1.105048418045043945e+00,-6.068648338317871094e+00,5.396683812141418457e-01
3.623731732368469238e-01,-1.990062475204467773e+00,-3.203778266906738281e-01
1.122862243652343750e+01,-6.172585296630859375e+01,7.703361988067626953e+00
3.595532774925231934e-01,-1.978493094444274902e+00,-2.469073086977005005e-01
1.089286446571350098e+00,-5.999909400939941406e+00,9.658265113830566406e-01
3.672927916049957275e-01,-2.025099992752075195e+00,-1.800637543201446533e-01
1.076656103134155273e+00,-5.936234474182128906e+00,1.172712206840515137e+00
3.656999468803405762e-01,-2.018321990966796875e+00,-1.074980646371841431e-01
1.075317144393920898e+00,-5.940659999847412109e+00,1.393796682357788086e+00
3.679312467575073242e-01,-2.034686326980590820e+00,-3.609157726168632507e-02
1.253859400749206543e+00,-6.940845489501953125e+00,1.889896750450134277e+00
3.527034223079681396e-01,-1.966149806976318359e+00,-5.352377891540527344e-01
3.672040998935699463e-01,-2.049040079116821289e+00,3.633590787649154663e-02
3.537208437919616699e-01,-1.975789189338684082e+00,-4.633992016315460205e-01
3.639324009418487549e-01,-2.034875154495239258e+00,1.083354428410530090e-01
3.532429039478302002e-01,-1.975106358528137207e+00,-3.900136053562164307e-01
1.084218382835388184e+00,-6.068356513977050781e+00,5.393196940422058105e-01
3.554245531558990479e-01,-1.991315126419067383e+00,-3.203778266906738281e-01
1.101308917999267578e+01,-6.176467132568359375e+01,7.703361988067626953e+00
3.547332882881164551e-01,-1.991461992263793945e+00,-2.483697384595870972e-01
1.061069250106811523e+00,-5.962834358215332031e+00,9.592562913894653320e-01
3.598773479461669922e-01,-2.022383451461791992e+00,-1.797151267528533936e-01
3.586521446704864502e-01,-2.019586324691772461e+00,-1.074980646371841431e-01
1.102979946136474609e+01,-6.217227554321289062e+01,1.457772731781005859e+01
3.580350875854492188e-01,-2.020205974578857422e+00,-3.581233695149421692e-02
1.228949069976806641e+00,-6.941375255584716797e+00,1.888861417770385742e+00
3.434970974922180176e-01,-1.954050183296203613e+00,-5.316143631935119629e-01
3.593573868274688721e-01,-2.046370267868041992e+00,3.626609966158866882e-02
3.495158553123474121e-01,-1.992367267608642578e+00,-4.669984281063079834e-01
3.571718037128448486e-01,-2.038100481033325195e+00,1.084401085972785950e-01
3.466851413249969482e-01,-1.978261113166809082e+00,-3.903951942920684814e-01
1.059592604637145996e+00,-6.052479267120361328e+00,5.375766158103942871e-01
3.481310009956359863e-01,-1.990597724914550781e+00,-3.200649321079254150e-01
1.079742145538330078e+01,-6.180273818969726562e+01,7.703361988067626953e+00
3.491449356079101562e-01,-2.000510215759277344e+00,-2.493446916341781616e-01
1.040587782859802246e+00,-5.968447685241699219e+00,9.595690965652465820e-01
3.504202365875244141e-01,-2.009887933731079102e+00,-1.784949600696563721e-01
1.079485607147216797e+01,-6.197945404052734375e+01,1.222894954681396484e+01
3.529698848724365234e-01,-2.028696775436401367e+00,-1.079167500138282776e-01
1.074596691131591797e+01,-6.182640457153320312e+01,1.448774719238281250e+01
3.520070612430572510e-01,-2.027354240417480469e+00,-3.591705113649368286e-02
1.195798277854919434e+00,-6.894230365753173828e+00,1.874885320663452148e+00
3.379852771759033203e-01,-1.962852597236633301e+00,-5.336848497390747070e-01
3.498392701148986816e-01,-2.033817052841186523e+00,3.602176904678344727e-02
3.405786752700805664e-01,-1.982051849365234375e+00,-4.642989933490753174e-01
3.503934144973754883e-01,-2.041303157806396484e+00,1.085447818040847778e-01
3.404420614242553711e-01,-1.983329057693481445e+00,-3.911584913730621338e-01
1.040479898452758789e+00,-6.067923069000244141e+00,5.386224985122680664e-01
3.391793072223663330e-01,-1.980118870735168457e+00,-3.181877434253692627e-01
1.363005280494689941e+00,-7.965538501739501953e+00,9.922602772712707520e-01
3.414910137653350830e-01,-1.997803211212158203e+00,-2.488572150468826294e-01
3.430668413639068604e-01,-2.009135007858276367e+00,-1.783206313848495483e-01
1.051241779327392578e+01,-6.162969207763671875e+01,1.215262508392333984e+01
3.455505371093750000e-01,-2.027947902679443359e+00,-1.078120842576026917e-01
1.053008651733398438e+01,-6.186354064941406250e+01,1.448774719238281250e+01
3.462691307067871094e-01,-2.036456108093261719e+00,-3.605667129158973694e-02
1.172695159912109375e+00,-6.904076099395751953e+00,1.876438140869140625e+00
3.311315476894378662e-01,-1.964020371437072754e+00,-5.336848497390747070e-01
3.427379727363586426e-01,-2.035025835037231445e+00,3.602176904678344727e-02
3.323648869991302490e-01,-1.975541591644287109e+00,-4.624993503093719482e-01
3.445897996425628662e-01,-2.050392150878906250e+00,1.089634671807289124e-01
3.335168361663818359e-01,-1.984505414962768555e+00,-3.911584913730621338e-01
1.016982674598693848e+00,-6.057764530181884766e+00,5.374023318290710449e-01
3.332456350326538086e-01,-1.987135291099548340e+00,-3.191263675689697266e-01
1.334536910057067871e+00,-7.966332435607910156e+00,9.917728304862976074e-01
3.345149755477905273e-01,-1.998983144760131836e+00,-2.488572150468826294e-01
1.031106376647949219e+01,-6.168257522583007812e+01,9.905118942260742188e+00
3.370372354984283447e-01,-2.016215562820434570e+00,-1.788435727357864380e-01
9.969026446342468262e-01,-5.970052242279052734e+00,1.176528334617614746e+00
3.364980816841125488e-01,-2.017321348190307617e+00,-1.071840524673461914e-01
1.034546494483947754e+00,-6.208830833435058594e+00,1.453183889389038086e+00
3.391583859920501709e-01,-2.037652492523193359e+00,-3.605667129158973694e-02
3.233301639556884766e-01,-1.959446072578430176e+00,-5.321319699287414551e-01
3.359571993350982666e-01,-2.038182497024536133e+00,3.605667129158973694e-02
3.254668712615966797e-01,-1.976689696311950684e+00,-4.624993503093719482e-01
3.358415961265563965e-01,-2.039699554443359375e+00,1.083354428410530090e-01
3.272247910499572754e-01,-1.989531993865966797e+00,-3.919216990470886230e-01
9.968005418777465820e-01,-6.067175388336181641e+00,5.379252433776855469e-01
3.269469439983367920e-01,-1.992184877395629883e+00,-3.197520971298217773e-01
9.791575074195861816e-01,-5.972819805145263672e+00,7.431593537330627441e-01
3.256106376647949219e-01,-1.988384962081909180e+00,-2.473948001861572266e-01
1.010645771026611328e+01,-6.171643066406250000e+01,9.905118942260742188e+00
3.299972414970397949e-01,-2.017379760742187500e+00,-1.788435727357864380e-01
3.294544219970703125e-01,-2.018483638763427734e+00,-1.071840524673461914e-01
1.009794044494628906e+01,-6.193554687500000000e+01,1.448774719238281250e+01
3.320776224136352539e-01,-2.036792516708374023e+00,-3.602176904678344727e-02
1.127847909927368164e+00,-6.925245761871337891e+00,1.880061626434326172e+00
3.171041905879974365e-01,-1.964377403259277344e+00,-5.331673026084899902e-01
3.291964232921600342e-01,-2.039285659790039062e+00,3.605667129158973694e-02
3.195307254791259766e-01,-1.981605887413024902e+00,-4.633992016315460205e-01
3.287196159362792969e-01,-2.040859460830688477e+00,1.083354428410530090e-01
3.190305233001708984e-01,-1.982908725738525391e+00,-3.903951942920684814e-01
9.737197756767272949e-01,-6.058815002441406250e+00,5.368793606758117676e-01
3.200255930423736572e-01,-1.991307854652404785e+00,-3.194392025470733643e-01
9.599745273590087891e-01,-5.979953289031982422e+00,7.436468005180358887e-01
3.190150558948516846e-01,-1.989453792572021484e+00,-2.473948001861572266e-01
3.223236799240112305e-01,-2.014584779739379883e+00,-1.784949600696563721e-01
3.230742216110229492e-01,-2.021537303924560547e+00,-1.072887256741523743e-01
9.892496109008789062e+00,-6.196869277954101562e+01,1.448774719238281250e+01
3.227618634700775146e-01,-2.024116039276123047e+00,-3.577743470668792725e-02
1.102756381034851074e+00,-6.923416614532470703e+00,1.878508687019348145e+00
3.084776699542999268e-01,-1.952060699462890625e+00,-5.295437574386596680e-01
3.230115771293640137e-01,-2.046348094940185547e+00,3.616138547658920288e-02
3.138254582881927490e-01,-1.990409135818481445e+00,-4.651987850666046143e-01
3.219045996665954590e-01,-2.043967247009277344e+00,1.084401085972785950e-01
3.124533891677856445e-01,-1.983955740928649902e+00,-3.903951942920684814e-01
9.523838758468627930e-01,-6.054137706756591797e+00,5.361821055412292480e-01
3.133789896965026855e-01,-1.994364261627197266e+00,-3.197520971298217773e-01
9.335542321205139160e-01,-5.947968959808349609e+00,7.392595410346984863e-01
3.120687901973724365e-01,-1.990555167198181152e+00,-2.473948001861572266e-01
3.150247335433959961e-01,-2.011705875396728516e+00,-1.781463325023651123e-01
3.172489106655120850e-01,-2.030545711517333984e+00,-1.077074110507965088e-01
3.160022795200347900e-01,-2.027205944061279297e+00,-3.581233695149421692e-02
1.076203703880310059e+00,-6.911953926086425781e+00,1.874367713928222656e+00
3.016617596149444580e-01,-1.953125596046447754e+00,-5.295437574386596680e-01
3.143419623374938965e-01,-2.037581682205200195e+00,3.598686307668685913e-02
3.068758845329284668e-01,-1.991492390632629395e+00,-4.651987850666046143e-01
3.162869215011596680e-01,-2.054948329925537109e+00,1.089634671807289124e-01
3.061234354972839355e-01,-1.988915205001831055e+00,-3.911584913730621338e-01
9.327588081359863281e-01,-6.067271709442138672e+00,5.370536446571350098e-01
3.040171265602111816e-01,-1.979826092720031738e+00,-3.172491490840911865e-01
3.057194650173187256e-01,-1.995556712150573730e+00,-2.478822767734527588e-01
3.080008327960968018e-01,-2.012793064117431641e+00,-1.781463325023651123e-01
9.115278720855712891e-01,-5.963822841644287109e+00,1.172712206840515137e+00
3.098575770854949951e-01,-2.029666423797607422e+00,-1.076027303934097290e-01
3.089240193367004395e-01,-2.028296709060668945e+00,-3.581233695149421692e-02
2.942657768726348877e-01,-1.950346231460571289e+00,-5.285084843635559082e-01
3.072275221347808838e-01,-2.038666486740112305e+00,3.598686307668685913e-02
2.987623512744903564e-01,-1.984843134880065918e+00,-4.633992016315460205e-01
3.076271414756774902e-01,-2.046164751052856445e+00,1.084401085972785950e-01
2.991788685321807861e-01,-1.989971637725830078e+00,-3.911584913730621338e-01
9.062485098838806152e-01,-6.035025119781494141e+00,5.339160561561584473e-01
2.971042990684509277e-01,-1.980875372886657715e+00,-3.172491490840911865e-01
2.987520098686218262e-01,-1.996611833572387695e+00,-2.478822767734527588e-01
9.013397097587585449e-01,-6.031007289886474609e+00,9.658265113830566406e-01
3.012671768665313721e-01,-2.015826463699340820e+00,-1.783206313848495483e-01
3.018874526023864746e-01,-2.024809598922729492e+00,-1.072887256741523743e-01
3.024304211139678955e-01,-2.033318758010864258e+00,-3.588214516639709473e-02
2.888638973236083984e-01,-1.960917711257934570e+00,-5.310966968536376953e-01
3.015649914741516113e-01,-2.049618244171142578e+00,3.616138547658920288e-02
2.918318212032318115e-01,-1.985874056816101074e+00,-4.633992016315460205e-01
2.993226051330566406e-01,-2.039321899414062500e+00,1.080214232206344604e-01
2.916604876518249512e-01,-1.987118959426879883e+00,-3.903951942920684814e-01
8.811314702033996582e-01,-6.010553359985351562e+00,5.314757227897644043e-01
2.913326025009155273e-01,-1.989718317985534668e+00,-3.185006082057952881e-01
2.906330525875091553e-01,-1.989785313606262207e+00,-2.469073086977005005e-01
2.945165932178497314e-01,-2.018837451934814453e+00,-1.784949600696563721e-01
2.925163805484771729e-01,-2.010039329528808594e+00,-1.064513474702835083e-01
2.950438857078552246e-01,-2.032382965087890625e+00,-3.584724292159080505e-02
2.831166982650756836e-01,-1.969563007354736328e+00,-5.331673026084899902e-01
2.946925461292266846e-01,-2.052637815475463867e+00,3.619629144668579102e-02
2.843450307846069336e-01,-1.983022570610046387e+00,-4.624993503093719482e-01
2.916361689567565918e-01,-2.036400079727172852e+00,1.078120842576026917e-01
2.830526828765869141e-01,-1.976464509963989258e+00,-3.881055414676666260e-01
8.680435419082641602e-01,-6.068817138671875000e+00,5.363564491271972656e-01
2.849443554878234863e-01,-1.994634270668029785e+00,-3.191263675689697266e-01
8.504166603088378906e-01,-5.960423469543457031e+00,7.392595410346984863e-01
2.836855649948120117e-01,-1.990787744522094727e+00,-2.469073086977005005e-01
2.874677181243896484e-01,-2.019853115081787109e+00,-1.784949600696563721e-01
8.490262031555175781e-01,-5.973041057586669922e+00,1.172712206840515137e+00
2.863406538963317871e-01,-2.016980648040771484e+00,-1.067653670907020569e-01
2.862654328346252441e-01,-2.021520853042602539e+00,-3.563781455159187317e-02
2.759716808795928955e-01,-1.968626022338867188e+00,-5.326496362686157227e-01
2.869713604450225830e-01,-2.049693584442138672e+00,3.612648323178291321e-02
2.776910960674285889e-01,-1.985933065414428711e+00,-4.629492759704589844e-01
2.856308817863464355e-01,-2.045317888259887695e+00,1.082307696342468262e-01
2.766947746276855469e-01,-1.981329083442687988e+00,-3.888687491416931152e-01
8.476803302764892578e-01,-6.077730178833007812e+00,5.368793606758117676e-01
2.771621644496917725e-01,-1.989747405052185059e+00,-3.181877434253692627e-01
2.775543928146362305e-01,-1.997664332389831543e+00,-2.476385235786437988e-01
8.381350636482238770e-01,-6.040114879608154297e+00,9.658265113830566406e-01
2.787721753120422363e-01,-2.009003162384033203e+00,-1.774490773677825928e-01
8.281710147857666016e-01,-5.975968360900878906e+00,1.172712206840515137e+00
2.814890742301940918e-01,-2.033794879913330078e+00,-1.076027303934097290e-01
8.618707656860351562e-01,-6.235145568847656250e+00,1.453183889389038086e+00
2.805745005607604980e-01,-2.032412290573120117e+00,-3.581233695149421692e-02
2.680521011352539062e-01,-1.961921095848083496e+00,-5.305790901184082031e-01
2.781929075717926025e-01,-2.038794517517089844e+00,3.591705113649368286e-02
2.720727622509002686e-01,-1.996544837951660156e+00,-4.651987850666046143e-01
2.774122655391693115e-01,-2.038386583328247070e+00,1.078120842576026917e-01
2.705711722373962402e-01,-1.988119006156921387e+00,-3.900136053562164307e-01
8.267288208007812500e-01,-6.082626342773437500e+00,5.370536446571350098e-01
2.696837186813354492e-01,-1.986787796020507812e+00,-3.175620138645172119e-01
2.708456218242645264e-01,-2.000588417053222656e+00,-2.478822767734527588e-01
2.717579603195190430e-01,-2.009963989257812500e+00,-1.774490773677825928e-01
2.743878066539764404e-01,-2.034765243530273438e+00,-1.076027303934097290e-01
1.035170316696166992e+00,-7.686594963073730469e+00,1.790610432624816895e+00
2.737450897693634033e-01,-2.035361289978027344e+00,-3.584724292159080505e-02
2.617119252681732178e-01,-1.966674804687500000e+00,-5.316143631935119629e-01
2.697570323944091797e-01,-2.029841899871826172e+00,3.574252873659133911e-02
2.640765011310577393e-01,-1.989755034446716309e+00,-4.633992016315460205e-01
2.708200812339782715e-01,-2.043302297592163086e+00,1.080214232206344604e-01
2.633716464042663574e-01,-1.987105011940002441e+00,-3.896319866180419922e-01
8.049677014350891113e-01,-6.081525325775146484e+00,5.367050766944885254e-01
2.630056738853454590e-01,-1.989675402641296387e+00,-3.178748786449432373e-01
7.879539728164672852e-01,-5.969001770019531250e+00,7.392595410346984863e-01
2.630824148654937744e-01,-1.995617270469665527e+00,-2.471510469913482666e-01
2.642200589179992676e-01,-2.006949663162231445e+00,-1.771004647016525269e-01
7.864314913749694824e-01,-5.981604576110839844e+00,1.172712206840515137e+00
2.654636204242706299e-01,-2.021848678588867188e+00,-1.068700328469276428e-01
2.671576142311096191e-01,-2.040269851684570312e+00,-3.591705113649368286e-02
2.548452913761138916e-01,-1.967576265335083008e+00,-5.316143631935119629e-01
2.642091810703277588e-01,-2.042670249938964844e+00,3.595196083188056946e-02
2.566297948360443115e-01,-1.986799478530883789e+00,-4.624993503093719482e-01
2.636859118938446045e-01,-2.044235229492187500e+00,1.080214232206344604e-01
2.561825811862945557e-01,-1.986065268516540527e+00,-3.892503976821899414e-01
7.827166318893432617e-01,-6.076393127441406250e+00,5.360077619552612305e-01
2.568148374557495117e-01,-1.996459007263183594e+00,-3.188134729862213135e-01
2.551046609878540039e-01,-1.988647460937500000e+00,-2.461760789155960083e-01
2.587318122386932373e-01,-2.019717454910278320e+00,-1.781463325023651123e-01
2.591634094715118408e-01,-2.028706550598144531e+00,-1.071840524673461914e-01
2.595289349555969238e-01,-2.037222623825073242e+00,-3.584724292159080505e-02
2.479755580425262451e-01,-1.968454003334045410e+00,-5.316143631935119629e-01
2.583249807357788086e-01,-2.053500413894653320e+00,3.612648323178291321e-02
2.523650228977203369e-01,-2.008952140808105469e+00,-4.674482941627502441e-01
2.560515999794006348e-01,-2.041179895401000977e+00,1.078120842576026917e-01
2.492485344409942627e-01,-1.986947417259216309e+00,-3.892503976821899414e-01
7.629863023757934570e-01,-6.090950489044189453e+00,5.370536446571350098e-01
2.495993375778198242e-01,-1.995383262634277344e+00,-3.185006082057952881e-01
7.767985343933105469e+00,-6.218807601928710938e+01,7.695074558258056641e+00
2.479154765605926514e-01,-1.987556219100952148e+00,-2.459323555231094360e-01
7.537203431129455566e-01,-6.051228046417236328e+00,9.658265113830566406e-01
2.516800761222839355e-01,-2.020608425140380859e+00,-1.781463325023651123e-01
2.528190314769744873e-01,-2.035544872283935547e+00,-1.074980646371841431e-01
2.504498064517974854e-01,-2.022239923477172852e+00,-3.556800633668899536e-02
2.411028146743774414e-01,-1.969307541847229004e+00,-5.316143631935119629e-01
2.504275441169738770e-01,-2.048434734344482422e+00,3.602176904678344727e-02
2.439340054988861084e-01,-1.998214364051818848e+00,-4.647488594055175781e-01
2.502493858337402344e-01,-2.049947738647460938e+00,1.082307696342468262e-01
2.415985316038131714e-01,-1.981958866119384766e+00,-3.881055414676666260e-01
7.553226470947265625e+00,-6.205321502685546875e+01,5.469022750854492188e+00
2.423942536115646362e-01,-1.994281530380249023e+00,-3.181877434253692627e-01
2.419315725564956665e-01,-1.996292114257812500e+00,-2.469073086977005005e-01
2.446254789829254150e-01,-2.021474599838256836e+00,-1.781463325023651123e-01
7.237497568130493164e-01,-5.989511966705322266e+00,1.172712206840515137e+00
2.452337890863418579e-01,-2.032449245452880859e+00,-1.072887256741523743e-01
2.442207634449005127e-01,-2.027029991149902344e+00,-3.563781455159187317e-02
2.424528300762176514e-01,-2.039325475692749023e+00,3.584724292159080505e-02
2.368470579385757446e-01,-1.995142102241516113e+00,-4.638490676879882812e-01
2.423868328332901001e-01,-2.044858694076538086e+00,1.079167500138282776e-01
2.342171669006347656e-01,-1.978890776634216309e+00,-3.873423039913177490e-01
7.318340778350830078e+00,-6.192487335205078125e+01,5.455426216125488281e+00
2.348524332046508789e-01,-1.987227320671081543e+00,-3.169362545013427734e-01
7.055804729461669922e-01,-5.979298591613769531e+00,7.392595410346984863e-01
2.353102266788482666e-01,-1.997083425521850586e+00,-2.469073086977005005e-01
2.373352050781250000e-01,-2.020337343215942383e+00,-1.779720187187194824e-01
2.375618070363998413e-01,-2.025316476821899414e+00,-1.068700328469276428e-01
2.376080751419067383e-01,-2.031842231750488281e+00,-3.570762276649475098e-02
2.357912361621856689e-01,-2.044132232666015625e+00,3.591705113649368286e-02
2.357040047645568848e-01,-2.049660444259643555e+00,1.081260889768600464e-01
2.285509407520294189e-01,-1.987457990646362305e+00,-3.888687491416931152e-01
7.099765777587890625e+00,-6.183399581909179688e+01,5.445316314697265625e+00
2.279139906167984009e-01,-1.988034963607788086e+00,-3.169362545013427734e-01
2.283378541469573975e-01,-1.997892618179321289e+00,-2.469073086977005005e-01
2.304082661867141724e-01,-2.019133806228637695e+00,-1.777977198362350464e-01
2.291361391544342041e-01,-2.014226913452148438e+00,-1.062420085072517395e-01
2.318663597106933594e-01,-2.044581174850463867e+00,-3.591705113649368286e-02
2.288766205310821533e-01,-2.046930313110351562e+00,3.595196083188056946e-02
2.272204011678695679e-01,-2.038561105728149414e+00,1.074980646371841431e-01
2.203070968389511108e-01,-1.976536631584167480e+00,-3.865790367126464844e-01
6.883872985839843750e+00,-6.185840225219726562e+01,5.445316314697265625e+00
2.218458205461502075e-01,-1.996671676635742188e+00,-3.181877434253692627e-01
2.202695906162261963e-01,-1.988812208175659180e+00,-2.456886023283004761e-01
6.702170372009277344e-01,-6.061045169830322266e+00,9.658265113830566406e-01
2.237969040870666504e-01,-2.023886442184448242e+00,-1.781463325023651123e-01
6.620360016822814941e-01,-5.996647357940673828e+00,1.172712206840515137e+00
2.218849062919616699e-01,-2.013029336929321289e+00,-1.061373278498649597e-01
2.238544076681137085e-01,-2.037427425384521484e+00,-3.577743470668792725e-02
2.223758399486541748e-01,-2.053680658340454102e+00,3.605667129158973694e-02
2.205316871404647827e-01,-2.043313264846801758e+00,1.077074110507965088e-01
2.129849642515182495e-01,-1.973389863967895508e+00,-3.858157992362976074e-01
2.155083268880844116e-01,-2.003326177597045898e+00,-3.191263675689697266e-01
6.429280638694763184e-01,-5.986359596252441406e+00,7.392595410346984863e-01
2.141727209091186523e-01,-1.997464299201965332e+00,-2.466635853052139282e-01
2.163064479827880859e-01,-2.020693063735961914e+00,-1.777977198362350464e-01
2.165520787239074707e-01,-2.029679298400878906e+00,-1.069747060537338257e-01
2.165295779705047607e-01,-2.036207914352416992e+00,-3.574252873659133911e-02
2.149976938962936401e-01,-2.052455902099609375e+00,3.602176904678344727e-02
2.133977860212326050e-01,-2.044070482254028320e+00,1.077074110507965088e-01
2.067067623138427734e-01,-1.979979395866394043e+00,-3.869606554508209229e-01
2.085142880678176880e-01,-2.004066228866577148e+00,-3.191263675689697266e-01
2.065844535827636719e-01,-1.992276310920715332e+00,-2.459323555231094360e-01
6.278866529464721680e-01,-6.065576553344726562e+00,9.658265113830566406e-01
2.076105624437332153e-01,-2.005581378936767578e+00,-1.764032244682312012e-01
2.096704840660095215e-01,-2.032409429550170898e+00,-1.070793718099594116e-01
2.092162221670150757e-01,-2.034961938858032227e+00,-3.570762276649475098e-02
2.062205523252487183e-01,-2.037277698516845703e+00,3.574252873659133911e-02
2.076646834611892700e-01,-2.058713197708129883e+00,1.084401085972785950e-01
2.019616663455963135e-01,-2.002175569534301758e+00,-3.911584913730621338e-01
1.993444561958312988e-01,-1.983161568641662598e+00,-3.156847953796386719e-01
2.008161544799804688e-01,-2.004836559295654297e+00,-2.473948001861572266e-01
2.014013677835464478e-01,-2.014223575592041016e+00,-1.771004647016525269e-01
2.027730047702789307e-01,-2.035116672515869141e+00,-1.071840524673461914e-01
2.025064677000045776e-01,-2.039659976959228516e+00,-3.577743470668792725e-02
1.987191736698150635e-01,-2.034004449844360352e+00,3.567272052168846130e-02
1.998965591192245483e-01,-2.053461790084838867e+00,1.081260889768600464e-01
1.949714720249176025e-01,-2.002868413925170898e+00,-3.911584913730621338e-01
1.939460784196853638e-01,-1.999574542045593262e+00,-3.181877434253692627e-01
1.930530965328216553e-01,-1.997621655464172363e+00,-2.464198321104049683e-01
5.855256319046020508e-01,-6.069811820983886719e+00,9.658265113830566406e-01
1.947517246007919312e-01,-2.018880605697631836e+00,-1.774490773677825928e-01
5.782452225685119629e-01,-6.005305767059326172e+00,1.172712206840515137e+00
1.947126537561416626e-01,-2.025871276855468750e+00,-1.066606864333152771e-01
1.953856796026229858e-01,-2.040354251861572266e+00,-3.577743470668792725e-02
1.927431076765060425e-01,-2.046631097793579102e+00,3.588214516639709473e-02
1.921512782573699951e-01,-2.044171094894409180e+00,1.076027303934097290e-01
1.884359866380691528e-01,-2.015973806381225586e+00,-3.206907212734222412e-01
5.592828392982482910e-01,-5.994752883911132812e+00,7.392595410346984863e-01
1.847902536392211914e-01,-1.984447598457336426e+00,-2.447136640548706055e-01
1.884410828351974487e-01,-2.027483940124511719e+00,-1.781463325023651123e-01
1.870871484279632568e-01,-2.020572662353515625e+00,-1.063466742634773254e-01
1.880663931369781494e-01,-2.035017013549804688e+00,-3.567272052168846130e-02
1.864977777004241943e-01,-2.053233623504638672e+00,3.598686307668685913e-02
1.841146796941757202e-01,-2.034883737564086914e+00,1.070793718099594116e-01
5.481563806533813477e-01,-6.082021713256835938e+00,5.342646837234497070e-01
1.796218305826187134e-01,-1.992978572845458984e+00,-3.169362545013427734e-01
1.792736947536468506e-01,-1.996912121772766113e+00,-2.461760789155960083e-01
1.815400868654251099e-01,-2.030113458633422852e+00,-1.783206313848495483e-01
1.809182018041610718e-01,-2.027149677276611328e+00,-1.066606864333152771e-01
1.804304569959640503e-01,-2.029685735702514648e+00,-3.556800633668899536e-02
1.793294399976730347e-01,-2.053871870040893555e+00,3.598686307668685913e-02
1.782216727733612061e-01,-2.049442529678344727e+00,1.078120842576026917e-01
5.279843807220458984e-01,-6.083806037902832031e+00,5.342646837234497070e-01
1.726641356945037842e-01,-1.993593454360961914e+00,-3.169362545013427734e-01
1.726432293653488159e-01,-2.001481533050537109e+00,-2.466635853052139282e-01
1.730882674455642700e-01,-2.014854431152343750e+00,-1.769261658191680908e-01
5.163764953613281250e-01,-6.010941982269287109e+00,1.172712206840515137e+00
1.736706048250198364e-01,-2.025779008865356445e+00,-1.065560132265090942e-01
1.736848503351211548e-01,-2.034288167953491211e+00,-3.563781455159187317e-02
1.704891324043273926e-01,-2.034558534622192383e+00,3.563781455159187317e-02
1.710668802261352539e-01,-2.050052165985107422e+00,1.078120842576026917e-01
1.654922068119049072e-01,-2.000093460083007812e+00,-2.464198321104049683e-01
1.662175953388214111e-01,-2.017431974411010742e+00,-1.771004647016525269e-01
4.943425059318542480e-01,-6.012794017791748047e+00,1.172712206840515137e+00
1.659179478883743286e-01,-2.022420883178710938e+00,-1.063466742634773254e-01
1.665827333927154541e-01,-2.034882068634033203e+00,-3.563781455159187317e-02
1.636696457862854004e-01,-2.043143033981323242e+00,3.577743470668792725e-02
1.637106537818908691e-01,-2.052655935287475586e+00,1.079167500138282776e-01
1.584732234477996826e-01,-2.004644393920898438e+00,-2.469073086977005005e-01
4.795035421848297119e-01,-6.079106330871582031e+00,9.658265113830566406e-01
1.591743826866149902e-01,-2.017999649047851562e+00,-1.771004647016525269e-01
1.585448533296585083e-01,-2.019005537033081055e+00,-1.061373278498649597e-01
1.597467809915542603e-01,-2.043453454971313477e+00,-3.577743470668792725e-02
1.566896438598632812e-01,-2.045695543289184570e+00,3.581233695149421692e-02
1.553297936916351318e-01,-2.037283182144165039e+00,1.070793718099594116e-01
4.631846547126770020e-01,-6.089082241058349609e+00,5.342646837234497070e-01
1.502781957387924194e-01,-1.989349722862243652e+00,-2.449573874473571777e-01
1.524289250373840332e-01,-2.022516489028930664e+00,-1.774490773677825928e-01
1.519441604614257812e-01,-2.025521516799926758e+00,-1.064513474702835083e-01
1.526130139827728271e-01,-2.043998718261718750e+00,-3.577743470668792725e-02
1.496933251619338989e-01,-2.048224449157714844e+00,3.584724292159080505e-02
1.482825279235839844e-01,-2.033803224563598633e+00,1.068700328469276428e-01
1.434759646654129028e-01,-1.991842269897460938e+00,-2.452011406421661377e-01
1.455108225345611572e-01,-2.025023698806762695e+00,-1.776234060525894165e-01
4.327531158924102783e-01,-6.037223339080810547e+00,1.176528334617614746e+00
1.455852836370468140e-01,-2.036000490188598633e+00,-1.069747060537338257e-01
1.452648341655731201e-01,-2.036514759063720703e+00,-3.563781455159187317e-02
1.426222324371337891e-01,-2.044719934463500977e+00,3.577743470668792725e-02
1.425652801990509033e-01,-2.054232835769653320e+00,1.079167500138282776e-01
1.368699073791503906e-01,-1.992307066917419434e+00,-2.452011406421661377e-01
4.168801009654998779e-01,-6.083721637725830078e+00,9.658265113830566406e-01
1.374902427196502686e-01,-2.011605024337768555e+00,-1.764032244682312012e-01
1.391044706106185913e-01,-2.040457487106323242e+00,-1.071840524673461914e-01
1.378844976425170898e-01,-2.033019304275512695e+00,-3.556800633668899536e-02
1.346908211708068848e-01,-2.033233404159545898e+00,3.556800633668899536e-02
1.357523500919342041e-01,-2.054694414138793945e+00,1.079167500138282776e-01
4.004593789577484131e-01,-6.093529224395751953e+00,5.342646837234497070e-01
3.927300572395324707e-01,-6.007963180541992188e+00,7.392595410346984863e-01
1.308187991380691528e-01,-2.006639003753662109e+00,-2.469073086977005005e-01
1.312064826488494873e-01,-2.018014669418334961e+00,-1.769261658191680908e-01
1.317235082387924194e-01,-2.036944389343261719e+00,-1.069747060537338257e-01
1.312706321477890015e-01,-2.035460948944091797e+00,-3.560291230678558350e-02
1.284497976303100586e-01,-2.041651725769042969e+00,3.570762276649475098e-02
1.289533823728561401e-01,-2.061136007308959961e+00,1.082307696342468262e-01
1.240411624312400818e-01,-2.005080461502075195e+00,-2.466635853052139282e-01
1.244063228368759155e-01,-2.022437572479248047e+00,-1.772747784852981567e-01
3.704131841659545898e-01,-6.021699428558349609e+00,1.172712206840515137e+00
1.242342889308929443e-01,-2.025408744812011719e+00,-1.063466742634773254e-01
1.245301142334938049e-01,-2.041894674301147461e+00,-3.570762276649475098e-02
1.212023794651031494e-01,-2.046101570129394531e+00,3.577743470668792725e-02
1.204590350389480591e-01,-2.045644283294677734e+00,1.073933914303779602e-01
1.158841550350189209e-01,-1.991649270057678223e+00,-2.449573874473571777e-01
1.179228127002716064e-01,-2.032804727554321289e+00,-1.781463325023651123e-01
3.483399450778961182e-01,-6.023016452789306641e+00,1.172712206840515137e+00
1.170398667454719543e-01,-2.029838323593139648e+00,-1.065560132265090942e-01
3.444607853889465332e-01,-5.992227554321289062e+00,1.385698556900024414e+00
1.169306710362434387e-01,-2.040340900421142578e+00,-3.567272052168846130e-02
1.140596047043800354e-01,-2.046512126922607422e+00,3.577743470668792725e-02
1.134278103709220886e-01,-2.048046350479125977e+00,1.074980646371841431e-01
3.366275429725646973e-01,-6.097388267517089844e+00,5.342646837234497070e-01
1.090398728847503662e-01,-1.994023919105529785e+00,-2.452011406421661377e-01
3.318974673748016357e-01,-6.088949203491210938e+00,9.658265113830566406e-01
1.108262315392494202e-01,-2.033204078674316406e+00,-1.781463325023651123e-01
1.097376197576522827e-01,-2.026245832443237305e+00,-1.063466742634773254e-01
1.094856858253479004e-01,-2.034746170043945312e+00,-3.556800633668899536e-02
1.069154366850852966e-01,-2.046897649765014648e+00,3.577743470668792725e-02
1.061748117208480835e-01,-2.046435356140136719e+00,1.073933914303779602e-01
3.088075816631317139e-01,-6.012860774993896484e+00,7.392595410346984863e-01
1.020784676074981689e-01,-1.994392395019531250e+00,-2.452011406421661377e-01
1.032208055257797241e-01,-2.023629188537597656e+00,-1.772747784852981567e-01
1.024618893861770630e-01,-2.022627353668212891e+00,-1.061373278498649597e-01
1.025835722684860229e-01,-2.039110422134399414e+00,-3.563781455159187317e-02
9.879610687494277954e-02,-2.027285099029541016e+00,3.542838618159294128e-02
9.941679984331130981e-02,-2.054773330688476562e+00,1.078120842576026917e-01
2.878167033195495605e-01,-6.013901710510253906e+00,7.392595410346984863e-01
9.577814489603042603e-02,-2.008616447448730469e+00,-2.469073086977005005e-01
9.568383544683456421e-02,-2.014026641845703125e+00,-1.764032244682312012e-01
9.549523890018463135e-02,-2.024967670440673828e+00,-1.062420085072517395e-01
9.546482563018798828e-02,-2.039456129074096680e+00,-3.563781455159187317e-02
9.199023991823196411e-02,-2.033610582351684570e+00,3.553309664130210876e-02
9.197496622800827026e-02,-2.049122095108032227e+00,1.074980646371841431e-01
8.859087526798248291e-02,-2.004972219467163086e+00,-2.464198321104049683e-01
8.900333195924758911e-02,-2.022310018539428711e+00,-1.771004647016525269e-01
2.642115950584411621e-01,-6.027292728424072266e+00,1.172712206840515137e+00
8.833878487348556519e-02,-2.023293256759643555e+00,-1.061373278498649597e-01
2.734621763229370117e-01,-6.288487911224365234e+00,1.453183889389038086e+00
8.869152516126632690e-02,-2.047768354415893555e+00,-3.577743470668792725e-02
8.547448366880416870e-02,-2.047905206680297852e+00,3.577743470668792725e-02
8.416108787059783936e-02,-2.033466100692749023e+00,1.066606864333152771e-01
8.110739290714263916e-02,-1.993368387222290039e+00,-2.449573874473571777e-01
2.468501627445220947e-01,-6.092989921569824219e+00,9.658265113830566406e-01
8.194354921579360962e-02,-2.022608518600463867e+00,-1.771004647016525269e-01
8.111551403999328613e-02,-2.019598007202148438e+00,-1.059279888868331909e-01
8.154262602329254150e-02,-2.048065423965454102e+00,-3.577743470668792725e-02
7.794355601072311401e-02,-2.038199663162231445e+00,3.560291230678558350e-02
7.736465334892272949e-02,-2.041730880737304688e+00,1.070793718099594116e-01
2.248241305351257324e-01,-6.016586303710937500e+00,7.392595410346984863e-01
7.422270625829696655e-02,-1.995623111724853516e+00,-2.452011406421661377e-01
7.473537325859069824e-02,-2.018900156021118164e+00,-1.767518520355224609e-01
2.228495478630065918e-01,-6.048609733581542969e+00,1.176528334617614746e+00
7.443118840456008911e-02,-2.029848337173461914e+00,-1.064513474702835083e-01
7.381260395050048828e-02,-2.032350540161132812e+00,-3.549819439649581909e-02
7.110637426376342773e-02,-2.046453237533569336e+00,3.574252873659133911e-02
7.078666239976882935e-02,-2.057956933975219727e+00,1.079167500138282776e-01
2.089275121688842773e-01,-6.105092525482177734e+00,5.344390273094177246e-01
6.705536693334579468e-02,-1.989918231964111328e+00,-2.444699108600616455e-01
6.762082874774932861e-02,-2.017157316207885742e+00,-1.765775233507156372e-01
6.780871748924255371e-02,-2.044069051742553711e+00,-1.071840524673461914e-01
2.034816294908523560e-01,-6.166355133056640625e+00,1.424390077590942383e+00
6.671811640262603760e-02,-2.032595634460449219e+00,-3.549819439649581909e-02
6.352494657039642334e-02,-2.032698154449462891e+00,3.549819439649581909e-02
6.389973312616348267e-02,-2.056184291839599609e+00,1.078120842576026917e-01
1.876153200864791870e-01,-6.105784416198730469e+00,5.344390273094177246e-01
6.016896292567253113e-02,-1.992124438285827637e+00,-2.447136640548706055e-01
1.840961277484893799e-01,-6.095208644866943359e+00,9.658265113830566406e-01
6.075881421566009521e-02,-2.023355722427368164e+00,-1.771004647016525269e-01
1.800310313701629639e-01,-6.030394554138183594e+00,1.172712206840515137e+00
6.031784787774085999e-02,-2.032315015792846680e+00,-1.065560132265090942e-01
6.021323427557945251e-02,-2.040801048278808594e+00,-3.563781455159187317e-02
5.700718611478805542e-02,-2.040893077850341797e+00,3.563781455159187317e-02
5.666703358292579651e-02,-2.054398298263549805e+00,1.077074110507965088e-01
5.414927750825881958e-02,-2.014141082763671875e+00,-2.473948001861572266e-01
5.380125716328620911e-02,-2.027538776397705078e+00,-1.774490773677825928e-01
5.347278341650962830e-02,-2.028510570526123047e+00,-1.063466742634773254e-01
5.314108356833457947e-02,-2.042997837066650391e+00,-3.567272052168846130e-02
4.998068884015083313e-02,-2.045077800750732422e+00,3.570762276649475098e-02
4.975711554288864136e-02,-2.050581455230712891e+00,1.074980646371841431e-01
1.423157602548599243e-01,-6.038959503173828125e+00,7.416968941688537598e-01
4.716981947422027588e-02,-2.031690120697021484e+00,-1.777977198362350464e-01
4.639181494712829590e-02,-2.028684854507446289e+00,-1.063466742634773254e-01
4.627515375614166260e-02,-2.039164543151855469e+00,-3.560291230678558350e-02
4.340975359082221985e-02,-2.055228471755981445e+00,3.588214516639709473e-02
4.264036938548088074e-02,-2.052739620208740234e+00,1.076027303934097290e-01
1.247334033250808716e-01,-6.107392787933349609e+00,5.344390273094177246e-01
4.007983952760696411e-02,-1.996600747108459473e+00,-2.452011406421661377e-01
4.003849998116493225e-02,-2.029850006103515625e+00,-1.776234060525894165e-01
3.958604112267494202e-02,-2.024833917617797852e+00,-1.061373278498649597e-01
3.896485641598701477e-02,-2.029316902160644531e+00,-3.542838618159294128e-02
3.588310256600379944e-02,-2.035373687744140625e+00,3.553309664130210876e-02
3.544038906693458557e-02,-2.050879001617431641e+00,1.074980646371841431e-01
2.092659711837768555e+00,-1.223347473144531250e+02,1.070446872711181641e+01
3.334049507975578308e-02,-2.010622262954711914e+00,-2.469073086977005005e-01
3.311086073517799377e-02,-2.018018960952758789e+00,-1.765775233507156372e-01
9.792233258485794067e-02,-6.032286167144775391e+00,1.172712206840515137e+00
3.251775726675987244e-02,-2.024959802627563477e+00,-1.061373278498649597e-01
3.203821927309036255e-02,-2.039437770843505859e+00,-3.560291230678558350e-02
2.869324013590812683e-02,-2.029488086700439453e+00,3.542838618159294128e-02
2.847373113036155701e-02,-2.064969778060913086e+00,1.082307696342468262e-01
2.632185257971286774e-02,-2.010726451873779297e+00,-2.469073086977005005e-01
2.606664411723613739e-02,-2.018122196197509766e+00,-1.765775233507156372e-01
2.554946206510066986e-02,-2.033049106597900391e+00,-1.065560132265090942e-01
2.491899952292442322e-02,-2.039537429809570312e+00,-3.560291230678558350e-02
2.163006179034709930e-02,-2.031575441360473633e+00,3.546328842639923096e-02
2.118339389562606812e-02,-2.057067871093750000e+00,1.078120842576026917e-01
1.990684308111667633e-02,-2.000957727432250977e+00,-3.169362545013427734e-01
1.939840801060199738e-02,-2.020730733871459961e+00,-2.481260001659393311e-01
1.909673586487770081e-02,-2.026170253753662109e+00,-1.772747784852981567e-01
1.839844696223735809e-02,-2.027134656906127930e+00,-1.062420085072517395e-01
1.790417730808258057e-02,-2.051609277725219727e+00,-3.581233695149421692e-02
1.463876105844974518e-02,-2.045635938644409180e+00,3.570762276649475098e-02
1.394831761717796326e-02,-2.049140453338623047e+00,1.073933914303779602e-01
4.051411524415016174e-02,-6.108531951904296875e+00,5.344390273094177246e-01
1.330495253205299377e-02,-2.060275316238403320e+00,-3.263223469257354736e-01
1.225944329053163528e-02,-2.006891012191772461e+00,-2.464198321104049683e-01
1.192956697195768356e-02,-2.010285854339599609e+00,-1.758802831172943115e-01
1.136663462966680527e-02,-2.035175323486328125e+00,-1.066606864333152771e-01
1.074255816638469696e-02,-2.051659345626831055e+00,-3.581233695149421692e-02
7.512428332120180130e-03,-2.049674272537231445e+00,3.577743470668792725e-02
6.762225180864334106e-03,-2.039190292358398438e+00,1.068700328469276428e-01
6.113356444984674454e-03,-2.060309171676635742e+00,-3.263223469257354736e-01
5.212617572396993637e-03,-1.991040825843811035e+00,-2.444699108600616455e-01
4.561386536806821823e-03,-2.010315895080566406e+00,-1.758802831172943115e-01
1.372459996491670609e-02,-6.048770904541015625e+00,1.175765037536621094e+00
4.271029960364103317e-03,-2.039196968078613281e+00,-1.068700328469276428e-01
3.549397224560379982e-03,-2.033687353134155273e+00,-3.549819439649581909e-02
3.557763411663472652e-04,-2.037689685821533203e+00,3.556800633668899536e-02
-3.588681574910879135e-04,-2.057177066802978516e+00,1.078120842576026917e-01
